0.49261,-2.80772,-20.9525;
0.398375,-3.03197,-22.5855;
3.71517,-2.6241,-32.0667;
-0.411419,-2.34706,-11.537;
-1.04038,-2.14939,-12.2871;
-1.46299,-2.13103,-20.9561;
-0.686384,-2.39874,-12.8604;
-0.650478,-2.49716,-13.1866;
-0.309415,-2.37059,-12.4215;
-0.947728,-1.85038,-10.9267;
1.06659,-2.64408,-18.754;
-1.04864,-2.57764,-19.0747;
-0.368985,-2.77938,-13.1954;
-0.0301448,0.258602,0.83347;
-0.613749,-2.4031,-12.417;
0.274089,-2.52595,-18.2719;
0.963502,-2.89443,-19.9238;
0.833235,-2.85149,-24.001;
1.95283,-2.66906,-16.359;
0.618314,-2.58605,-13.1159;
-1.7087,-1.91381,-10.9115;
1.44592,-2.96082,-17.5935;
-0.455532,-2.41963,-16.0768;
-0.12087,-2.39845,-11.4604;
0.803385,-2.51691,-16.2239;
1.09507,-2.5867,-14.2316;
-0.248127,-2.33529,-9.97824;
-1.43221,-2.31035,-14.61;
1.26872,-2.50592,-10.9991;
-1.40502,-2.20741,-16.7254;
-0.855846,-2.52779,-10.5281;
1.34107,-2.71339,-15.3379;
-0.259334,-2.72613,-24.1704;
-0.902328,-2.17602,-10.6644;
0.812538,-2.60974,-16.3911;
-1.09209,-2.70091,-19.3969;
0.147377,-2.55224,-17.9455;
-0.914377,-2.52982,-17.4619;
0.633197,-2.50622,-10.9372;
0.73593,-2.69293,-12.011;
-0.976113,-2.0661,-16.6793;
-0.109391,-2.40576,-10.9044;
-0.890123,-2.29674,-11.8105;
-0.634149,-2.33776,-11.2816;
-0.87408,-2.20297,-9.8022;
-1.28944,-2.03656,-13.7208;
-0.259139,-2.44483,-12.8811;
-0.534208,-2.50924,-12.6925;
0.629065,-2.84832,-17.0067;
1.32103,-2.6191,-12.3254;
1.00278,-2.87471,-21.2358;
0.343583,-2.65066,-13.257;
-0.0597954,-2.46417,-11.3174;
0.54964,-2.55492,-13.7213;
-0.819183,-2.20229,-14.129;
-1.41468,-2.05573,-12.077;
1.305,-2.95678,-18.8932;
1.18143,-2.61452,-12.6441;
-1.23527,-2.12339,-11.9689;
1.08844,-2.31304,-15.2703;
-1.31092,-2.01006,-9.26679;
-0.485474,-2.29418,-10.3034;
-1.23524,-1.91471,-9.11157;
1.36733,-2.74125,-15.9587;
-1.1989,-2.19534,-17.3246;
1.18323,-2.96019,-18.6015;
-1.26453,-2.00547,-11.0567;
0.429328,-2.52632,-12.1205;
0.459813,-2.4887,-11.5619;
-0.946372,-2.14557,-11.3621;
3.52311,-2.52243,-27.4752;
1.05689,-2.72314,-21.1764;
0.565947,-2.4456,-10.6569;
-1.66647,-1.6836,-10.6496;
-0.452117,-2.44694,-13.2928;
0.521827,-2.84286,-12.199;
-1.39206,-2.17836,-15.2367;
0.941702,-3.03878,-26.9004;
-0.0414816,0.253364,0.839253;
-1.18641,-2.32987,-15.2297;
-0.28549,-2.4114,-10.744;
-0.229218,-2.39741,-16.0745;
-0.11324,-1.587,-8.07925;
1.91565,-2.43325,-14.9587;
-1.49005,-2.20599,-16.5503;
0.875993,-2.85996,-32.215;
1.45301,-2.66486,-13.1624;
0.068656,0.278499,1.05325;
1.48878,-2.9268,-14.1793;
1.17806,-2.56263,-10.9056;
-1.66749,-2.77753,-11.7268;
0.350348,-3.09723,-27.7297;
1.41983,-3.5002,-28.7047;
-0.724569,-2.21365,-9.95842;
-0.1463,-2.52182,-11.8089;
-0.813197,-2.15344,-10.6913;
-1.32383,-2.03847,-12.8981;
-0.870491,-2.25387,-10.2142;
-0.30592,-2.49305,-10.4212;
1.93866,-2.76464,-17.0626;
-1.00507,-2.52907,-16.082;
1.44715,-2.62017,-13.416;
0.374032,-2.74847,-22.1575;
1.47381,-3.19428,-31.8404;
-0.922044,-2.07514,-10.0405;
1.27363,-2.62989,-13.8267;
1.72275,-2.89389,-18.7389;
-0.894876,-2.14912,-10.2564;
-0.019694,-2.92272,-18.6716;
-0.391817,-2.95124,-12.1092;
-0.959584,-2.32406,-14.4047;
-0.800412,-2.3301,-18.3626;
-0.538446,1.67746,6.15994;
-0.363713,-2.59029,-12.6393;
0.87641,-2.73404,-16.7373;
0.86918,-2.65405,-15.3481;
0.322206,-2.35333,-12.5909;
0.864313,-2.76356,-22.0458;
0.0784938,0.315648,1.14381;
0.149977,-1.84628,-13.488;
-0.508137,1.73262,6.46808;
2.39244,-4.59821,-33.6754;
0.221496,-2.55149,-17.3042;
2.74313,-3.4006,-20.623;
0.988662,-2.77792,-15.1376;
-0.137161,-0.168969,-1.20799;
1.49842,-3.7888,-36.449;
0.0601962,-2.56973,-22.4216;
2.01185,-2.85918,-29.3435;
-0.693004,-2.39346,-11.3988;
1.02177,-2.65103,-13.348;
-0.909146,-2.15596,-9.96201;
-1.12795,-1.93452,-8.79117;
0.32283,-2.46107,-11.8202;
0.718841,-3.63742,-30.3054;
1.2074,-2.52295,-12.0355;
-0.746532,-2.4876,-23.4755;
-1.43361,-2.53782,-10.9058;
-1.47865,-1.90269,-10.5142;
-0.374456,-2.51934,-11.3598;
-1.37542,-2.06944,-12.1545;
-0.934878,-1.47705,-9.68306;
1.14387,-2.89652,-30.1229;
-0.193269,-1.79561,-21.526;
-0.315995,-2.52837,-16.7782;
-0.654283,-2.53964,-18.8042;
0.351094,-2.58809,-11.7264;
1.41026,-2.71886,-13.8109;
-0.0815399,-2.90429,-25.8705;
1.00946,-1.66553,-7.89557;
1.17256,-2.96719,-17.0975;
0.0794665,0.333526,1.2864;
1.0748,-2.58923,-13.0491;
-0.148709,-0.173879,-1.32563;
-0.895783,-2.54258,-18.8233;
-0.441488,-2.92185,-27.6655;
-1.68168,-1.88656,-11.2055;
2.03017,-3.27689,-27.9883;
-0.93511,-1.852,-12.3152;
-0.870607,-2.10001,-10.8789;
1.63544,-2.77563,-17.1263;
-1.26534,-2.26019,-17.1152;
-1.69229,-2.64985,-11.7793;
-0.180275,-2.48732,-11.4183;
1.52707,-2.58416,-15.5444;
1.23262,-2.93482,-25.111;
0.862833,-2.69132,-13.1189;
0.0760152,0.332141,1.28817;
1.95681,-3.91172,-18.321;
0.873707,-2.64098,-14.7789;
-1.3567,-2.24791,-9.66838;
0.709715,-2.56868,-30.8474;
1.4731,-2.48177,-12.6946;
-1.05536,-1.65699,-11.8185;
-1.6731,-2.29046,-14.2537;
-1.16344,-2.05909,-9.02108;
-0.8811,-1.32496,-9.64149;
0.432001,-2.69594,-16.9131;
-1.23385,-1.97266,-8.97761;
0.0785066,-3.15093,-30.3845;
0.4952,-2.01832,-15.2781;
-0.152179,0.27208,1.07902;
-0.136023,-0.142259,-1.23407;
1.30622,-2.47919,-13.0217;
-1.57082,-1.70188,-10.4328;
-0.0559281,-2.16037,-13.9909;
-1.8856,-2.44486,-13.7981;
0.414495,1.11128,4.23926;
2.37166,-4.23292,-31.3531;
-0.280417,-3.28232,-24.7687;
-0.0759474,0.00434849,-0.217682;
-1.12475,-2.22857,-11.8191;
0.308619,-3.06646,-18.7069;
-1.06546,-2.41432,-13.7888;
0.100325,-2.92767,-19.6068;
2.33018,-5.47723,-27.1673;
-0.631725,-2.37857,-14.8525;
-0.399239,0.942101,4.14042;
0.498262,-2.5062,-15.3229;
-0.429664,-2.36407,-13.1343;
-0.992692,-1.89797,-10.2124;
-0.443,1.35311,4.92203;
-1.22565,-2.21073,-11.7282;
2.13691,-2.94684,-22.5347;
-1.1558,-2.34692,-16.3802;
0.238056,-2.30536,-11.0373;
0.0135609,-4.2837,-17.3498;
0.515778,-2.38588,-11.6172;
0.00594884,-2.34767,-11.0636;
-1.52756,-2.89242,-17.6559;
1.24657,-2.86292,-19.5376;
-1.49968,-2.0223,-11.3398;
1.26505,-2.88736,-17.8627;
1.05236,-2.34363,-10.0175;
1.30998,-2.64898,-13.5571;
-0.720189,-2.52872,-11.3648;
-1.11489,-2.4155,-11.5308;
0.167812,0.88616,3.75608;
0.947178,-1.66528,-14.4606;
BIC: 612.926
MinW: 1
BIC: 408.952
MinW: 0.836346
BIC: 399.922
MinW: 0.0876456
BIC: 401.498
MinW: 0.0772543
